ply
format ascii 1.0
element vertex 1174
property float x
property float y
property float z
property uchar red
property uchar green
property uchar blue
end_header
7.587264 0.584800 -7.966811 100 89 84
7.536463 0.580191 -7.904009 99 89 81
7.657577 0.588811 -8.021441 99 90 80
9.969608 0.759336 -10.344525 98 87 78
9.908382 0.753781 -10.268852 97 87 78
9.840899 0.747764 -10.186880 97 87 79
9.809797 0.744522 -10.142717 99 89 82
26.652874 1.962702 -26.738134 119 100 91
26.683350 1.962702 -26.738134 118 98 89
26.713827 1.962702 -26.738134 117 95 87
26.693459 1.958970 -26.687302 117 96 87
26.723877 1.958970 -26.687302 118 99 89
18.999680 1.364793 -18.592743 139 114 100
11.616779 0.817144 -11.132054 144 115 99
11.601866 0.815205 -11.105634 143 110 89
11.614524 0.815205 -11.105634 148 106 77
9.191218 0.644414 -8.778937 167 113 75
9.189731 0.643609 -8.767970 191 124 82
9.176797 0.642005 -8.746119 209 132 89
9.181046 0.641605 -8.740673 224 139 93
9.191008 0.641605 -8.740673 230 139 93
9.200971 0.641605 -8.740673 231 139 94
9.142620 0.636847 -8.675847 235 142 97
9.146855 0.636454 -8.670488 235 143 96
9.162397 0.636847 -8.675847 234 142 95
8.669819 0.598732 -8.156607 235 151 104
8.664013 0.597691 -8.142413 232 152 105
8.668266 0.597344 -8.137693 227 147 101
8.677542 0.597344 -8.137693 222 143 98
8.671736 0.596307 -8.123565 222 146 101
8.675974 0.595962 -8.118867 225 149 104
8.680207 0.595618 -8.114174 224 149 104
8.679422 0.594930 -8.104804 217 143 98
8.683646 0.594587 -8.100127 203 133 89
8.697898 0.594930 -8.104804 201 130 88
60.471714 4.025072 -54.834064 255 181 119
51.655861 3.434728 -46.791737 255 177 117
50.861504 3.378421 -46.024658 255 178 120
50.582275 3.356412 -45.724823 255 181 121
51.302834 3.400721 -46.328449 255 182 119
62.471714 4.025072 -54.834064 226 211 198
59.734173 3.844845 -52.378807 228 212 200
59.793877 3.844845 -52.378807 227 212 200
59.853577 3.844845 -52.378807 226 210 197
52.645111 3.378421 -46.024658 227 209 196
52.697571 3.378421 -46.024658 228 209 195
62.846714 4.025072 -54.834064 229 209 196
49.909470 3.190150 -43.459816 227 210 197
49.347885 3.151127 -42.928196 226 210 197
48.652889 3.103670 -42.281689 224 207 192
48.996239 3.122480 -42.537941 226 208 192
49.044724 3.122480 -42.537941 227 211 196
49.392559 3.141520 -42.797318 226 212 199
49.897720 3.170518 -43.192371 225 212 201
50.256218 3.190150 -43.459816 222 210 200
50.777370 3.220058 -43.867252 218 207 195
12.777425 0.784782 -10.691181 135 123 130
12.673780 0.777674 -10.594355 126 117 129
12.590831 0.771849 -10.514997 121 113 125
12.565167 0.769543 -10.483585 116 107 116
12.539657 0.767251 -10.452361 116 105 110
12.514297 0.764973 -10.421322 120 108 109
12.443037 0.759896 -10.352154 143 130 128
12.291673 0.749941 -10.216536 157 144 139
12.384439 0.754885 -10.283897 161 150 143
12.387086 0.754333 -10.276369 141 140 131
12.389729 0.753781 -10.268852 129 130 120
12.410512 0.754333 -10.276369 128 124 114
12.440439 0.755439 -10.291437 130 123 114
12.470454 0.756548 -10.306550 137 129 122
12.454768 0.754885 -10.283897 140 136 131
12.430065 0.752680 -10.253850 139 137 135
12.414547 0.751034 -10.231429 137 135 135
12.408121 0.749941 -10.216536 141 139 137
12.419766 0.749941 -10.216536 143 144 137
12.431411 0.749941 -10.216536 146 150 139
26.718994 1.522036 -20.734890 90 89 88
26.430305 1.504261 -20.492731 80 81 79
26.453663 1.504261 -20.492731 78 79 78
26.869272 1.526546 -20.796328 77 80 79
26.972897 1.531082 -20.858128 77 81 81
27.036844 1.533361 -20.889168 84 87 89
27.060654 1.533361 -20.889168 91 93 96
27.084463 1.533361 -20.889168 109 104 107
29.668989 1.678206 -22.862411 117 106 112
29.695047 1.678206 -22.862411 106 95 104
29.721106 1.678206 -22.862411 97 87 97
29.554626 1.667344 -22.714434 90 84 90
29.580515 1.667344 -22.714434 89 86 86
29.606405 1.667344 -22.714434 90 87 81
28.618969 1.607517 -21.899408 91 92 84
28.599312 1.605013 -21.865297 91 93 82
28.803698 1.615076 -22.002384 87 88 77
27.983347 1.526546 -20.796328 80 77 77
27.965620 1.524288 -20.765562 79 75 76
28.072342 1.528811 -20.827181 82 77 79
28.137829 1.531082 -20.858128 85 80 85
22.751169 2.331996 -32.270161 240 182 212
22.787951 2.331996 -32.270161 234 190 206
22.113049 2.259284 -31.263966 223 195 196
21.432671 2.186247 -30.253277 213 201 191
21.193104 2.158337 -29.867065 206 205 194
21.003702 2.135618 -29.552675 205 210 202
17.994192 1.817954 -25.156847 206 191 186
17.551062 1.770364 -24.498291 201 187 176
17.336935 1.745987 -24.160965 197 188 175
17.099590 1.719353 -23.792408 192 185 176
16.869381 1.693520 -23.434925 194 185 185
15.913143 1.594998 -22.071573 193 179 185
15.499631 1.551099 -21.464098 190 181 179
15.476767 1.546370 -21.398659 190 189 179
15.222692 1.518590 -21.014252 184 191 178
43.596714 3.962572 -54.834064 222 207 202
43.659214 3.962572 -54.834064 221 208 202
43.721714 3.962572 -54.834064 218 209 200
43.784214 3.962572 -54.834064 218 214 199
43.846714 3.962572 -54.834064 220 218 196
12.822480 1.057788 -14.637665 170 121 100
12.785834 1.053394 -14.576864 162 123 99
12.749492 1.049037 -14.516567 156 123 99
12.674291 1.041497 -14.412239 151 119 98
12.651749 1.038299 -14.367984 144 115 97
7.586325 0.577030 -7.984938 100 85 87
7.578183 0.575720 -7.966811 100 86 87
7.527454 0.571182 -7.904009 100 88 84
7.536463 0.571182 -7.904009 96 87 78
7.545472 0.571182 -7.904009 96 89 78
9.981400 0.747545 -10.344525 96 87 79
9.920087 0.742076 -10.268852 95 85 80
26.571785 1.928552 -26.687302 114 97 91
26.551725 1.924893 -26.636662 118 100 90
26.632622 1.928552 -26.687302 117 96 86
26.663040 1.928552 -26.687302 118 96 86
26.693459 1.928552 -26.687302 121 99 88
26.673166 1.924893 -26.636662 121 100 90
19.003658 1.345383 -18.617401 139 112 96
18.999680 1.343601 -18.592743 139 114 100
19.071392 1.347169 -18.642126 141 119 105
9.126952 0.632036 -8.746119 144 114 97
9.131232 0.631643 -8.740673 148 110 84
9.141194 0.631643 -8.740673 158 108 70
9.151157 0.631643 -8.740673 178 114 69
9.138359 0.630074 -8.718957 201 125 77
9.125625 0.628512 -8.697349 218 133 87
9.124232 0.627734 -8.686584 227 139 92
9.128484 0.627346 -8.681212 231 141 94
9.138379 0.627346 -8.681212 234 142 97
9.136972 0.626571 -8.670488 239 145 101
9.141210 0.626184 -8.665136 241 147 101
9.145440 0.625798 -8.659791 239 145 97
8.658991 0.588069 -8.137693 235 152 105
8.653217 0.587048 -8.123565 233 149 103
8.657466 0.586708 -8.118867 226 144 99
8.666720 0.586708 -8.118867 224 143 99
8.670959 0.586369 -8.114174 228 145 105
8.670184 0.585692 -8.104804 228 144 105
8.679422 0.585692 -8.104804 220 139 98
8.688660 0.585692 -8.104804 206 130 89
8.712990 0.586708 -8.118867 198 127 88
50.861504 3.325962 -46.024658 255 180 115
50.747578 3.315093 -45.874249 255 184 119
62.471714 3.962572 -54.834064 229 209 195
62.534214 3.962572 -54.834064 229 207 198
59.793877 3.785144 -52.378807 227 209 198
62.659214 3.962572 -54.834064 225 207 195
62.721714 3.962572 -54.834064 225 206 192
62.784214 3.962572 -54.834064 225 204 190
62.846714 3.962572 -54.834064 226 204 190
62.909214 3.962572 -54.834064 227 205 192
62.971714 3.962572 -54.834064 226 206 193
63.034214 3.962572 -54.834064 224 205 192
63.096714 3.962572 -54.834064 222 203 187
49.145164 3.083339 -42.667236 222 204 187
49.193794 3.083339 -42.667236 222 206 191
49.695580 3.111713 -43.059879 222 207 195
49.897720 3.121288 -43.192371 221 208 196
50.256218 3.140615 -43.459816 219 207 194
12.787164 0.773185 -10.699329 145 132 139
12.664223 0.765021 -10.586366 135 125 137
12.590831 0.759864 -10.514997 124 116 128
12.546427 0.756464 -10.467950 116 104 113
12.511708 0.753654 -10.429064 116 100 105
12.505013 0.752536 -10.413590 120 102 104
10.585169 0.636398 -8.806475 136 116 119
10.595206 0.636398 -8.806475 150 129 135
12.330240 0.739911 -10.238892 154 135 142
12.341910 0.739911 -10.238892 137 129 130
12.389729 0.742076 -10.268852 126 122 118
12.419603 0.743164 -10.283897 128 119 113
12.440439 0.743709 -10.291437 134 121 112
12.452169 0.743709 -10.291437 142 128 120
12.454768 0.743164 -10.283897 142 132 127
12.430065 0.740992 -10.253850 136 132 132
12.414547 0.739372 -10.231429 132 134 136
12.408121 0.738296 -10.216536 134 139 138
12.419766 0.738296 -10.216536 137 146 139
12.431411 0.738296 -10.216536 143 152 140
36.510624 2.049330 -28.358627 122 122 125
36.469273 2.045198 -28.301453 91 91 92
26.663857 1.493989 -20.673815 80 82 80
26.885399 1.505072 -20.827181 75 79 74
26.949121 1.507308 -20.858128 73 78 73
27.013035 1.509551 -20.889168 74 80 76
26.916679 1.502842 -20.796328 80 88 86
26.781677 1.493989 -20.673815 85 91 93
26.687330 1.487417 -20.582874 102 100 105
27.108273 1.509551 -20.889168 110 102 110
28.618969 1.582556 -21.899408 89 90 82
28.599312 1.580091 -21.865297 90 92 78
61.916695 3.347916 -46.328449 85 86 91
22.751169 2.295215 -32.270161 241 178 206
22.787951 2.295215 -32.270161 233 182 197
22.113049 2.223649 -31.263966 229 192 193
21.478960 2.156411 -30.318619 223 200 192
21.467152 2.151764 -30.253277 217 205 195
21.003702 2.101933 -29.552675 215 210 204
20.731865 2.071408 -29.123487 208 208 205
19.937767 1.988881 -27.963188 209 208 205
18.530054 1.845505 -25.947357 210 204 201
17.994192 1.789280 -25.156847 207 198 193
17.581747 1.745487 -24.541121 204 195 188
17.366825 1.721411 -24.202621 200 195 186
17.157753 1.697991 -23.873335 198 195 186
16.869381 1.666809 -23.434925 202 197 191
15.913143 1.569840 -22.071573 206 196 192
15.475967 1.524303 -21.431330 203 195 186
15.198741 1.494638 -21.014252 198 196 182
14.932098 1.466106 -20.613100 190 194 179
14.760520 1.446983 -20.344233 182 188 173
14.762314 1.444889 -20.314791 188 189 176
14.512442 1.418208 -19.939659 187 182 172
43.659214 3.900072 -54.834064 223 209 203
43.721714 3.900072 -54.834064 218 209 200
43.784214 3.900072 -54.834064 216 214 198
43.846714 3.900072 -54.834064 216 217 195
12.809124 1.040019 -14.622417 167 121 98
12.785834 1.036779 -14.576864 158 120 97
12.749492 1.032491 -14.516567 152 120 97
12.687316 1.026124 -14.427051 146 116 95
12.664712 1.022970 -14.382706 138 112 94
7.615775 0.571505 -8.035215 95 85 85
7.624933 0.571505 -8.035215 98 85 85
7.586325 0.567929 -7.984938 98 83 85
7.556739 0.565036 -7.944267 100 85 86
7.527454 0.562173 -7.904009 101 88 85
7.536463 0.562173 -7.904009 97 86 79
26.521364 1.894532 -26.636662 111 96 88
26.551725 1.894532 -26.636662 112 96 85
26.683350 1.901749 -26.738134 112 94 82
26.713827 1.901749 -26.738134 115 96 83
26.693459 1.898134 -26.687302 120 99 86
26.673166 1.894532 -26.636662 122 101 88
26.959309 1.912679 -26.891802 120 100 89
19.024879 1.324162 -18.617401 141 116 102
9.116983 0.622068 -8.746119 138 114 103
9.092960 0.619751 -8.713545 142 110 95
9.085972 0.618599 -8.697349 150 109 84
9.095885 0.618599 -8.697349 163 109 71
9.100161 0.618216 -8.691963 186 119 72
9.104430 0.617833 -8.686584 210 130 81
9.103065 0.617069 -8.675847 226 137 91
9.112953 0.617069 -8.675847 229 141 93
9.117208 0.616688 -8.670488 230 142 94
9.127090 0.616688 -8.670488 235 145 98
9.131332 0.616308 -8.665136 241 147 102
9.135570 0.615927 -8.659791 243 148 101
9.139802 0.615548 -8.654451 241 145 96
9.149667 0.615548 -8.654451 238 143 91
8.643213 0.577120 -8.114174 234 148 102
8.642470 0.576454 -8.104804 228 144 98
8.666720 0.577454 -8.118867 227 144 99
8.660946 0.576454 -8.104804 229 144 103
8.670184 0.576454 -8.104804 227 140 101
8.679422 0.576454 -8.104804 219 135 94
8.703735 0.577454 -8.118867 207 128 88
43.876804 2.844497 -39.992935 254 171 110
43.922390 2.844497 -39.992935 252 173 109
60.284214 3.900072 -54.834064 245 170 104
60.346714 3.900072 -54.834064 240 167 100
60.409214 3.900072 -54.834064 245 170 103
60.471714 3.900072 -54.834064 252 172 107
60.534214 3.900072 -54.834064 253 170 107
60.596714 3.900072 -54.834064 254 174 111
60.659214 3.900072 -54.834064 255 180 116
62.221714 3.900072 -54.834064 248 193 148
62.284214 3.900072 -54.834064 247 201 161
62.346714 3.900072 -54.834064 242 203 169
62.409214 3.900072 -54.834064 238 204 177
62.471714 3.900072 -54.834064 235 203 181
59.734173 3.725442 -52.378807 231 201 184
59.571594 3.711593 -52.184090 226 201 186
59.853577 3.725442 -52.378807 224 201 186
62.721714 3.900072 -54.834064 225 202 187
62.784214 3.900072 -54.834064 226 201 186
62.846714 3.900072 -54.834064 225 200 186
49.242428 3.034707 -42.667236 209 200 187
48.993229 3.016370 -42.409428 210 201 186
12.816469 0.762734 -10.723850 143 127 125
12.664223 0.752955 -10.586366 133 121 124
12.600269 0.748440 -10.522879 126 116 120
12.574558 0.746202 -10.491421 120 106 108
12.539657 0.743424 -10.452361 118 102 102
10.575131 0.626360 -8.806475 123 104 103
9.652608 0.571178 -8.030618 134 113 114
9.667292 0.571505 -8.035215 144 122 126
9.676451 0.571505 -8.035215 148 127 133
12.405249 0.731978 -10.291437 138 126 127
12.416979 0.731978 -10.291437 129 120 117
12.428709 0.731978 -10.291437 131 119 113
12.440439 0.731978 -10.291437 139 123 115
12.452169 0.731978 -10.291437 145 129 122
12.454768 0.731442 -10.283897 144 131 128
12.466490 0.731442 -10.283897 141 133 134
12.478211 0.731442 -10.283897 143 139 143
17.833429 1.044371 -14.683599 145 147 146
17.850166 1.044371 -14.683599 148 156 148
17.792458 1.040019 -14.622417 159 168 154
17.809124 1.040019 -14.622417 170 169 155
36.547371 2.033439 -28.589655 125 118 126
36.519756 2.021090 -28.416033 133 138 135
36.478302 2.017007 -28.358627 114 118 115
36.733250 2.029306 -28.531546 99 103 103
36.542946 2.017007 -28.358627 84 87 87
36.575272 2.017007 -28.358627 79 82 81
36.533787 2.012940 -28.301453 75 80 76
26.916679 1.479138 -20.796328 79 84 82
26.624830 1.461813 -20.552738 83 87 88
26.493099 1.453302 -20.433071 96 95 99
26.671682 1.461813 -20.552738 104 100 106
27.583599 1.510467 -21.236794 101 95 104
28.618969 1.557595 -21.899408 88 91 83
28.203930 1.533669 -21.563011 88 92 78
28.228508 1.533669 -21.563011 86 90 76
37.672207 2.004856 -28.187792 84 85 89
37.704334 2.004856 -28.187792 83 84 87
37.660839 2.000839 -28.131304 81 82 82
22.909164 2.274117 -32.494259 228 171 192
23.052927 2.284694 -32.645397 221 173 183
22.362070 2.212654 -31.616037 226 187 185
21.525452 2.126447 -30.384243 225 196 188
21.467152 2.117281 -30.253277 220 200 191
21.003702 2.068249 -29.552675 211 199 192
20.025568 1.968774 -28.131304 203 196 191
19.396820 1.903912 -27.204496 203 200 193
18.530054 1.815931 -25.947357 205 202 195
18.091457 1.770123 -25.292830 206 199 196
17.705561 1.729610 -24.713945 205 198 197
17.426918 1.699686 -24.286367 203 199 196
17.157753 1.670780 -23.873335 202 200 193
17.126709 1.665116 -23.792408 208 203 193
16.673409 1.618482 -23.126064 214 205 192
15.475967 1.499876 -21.431330 213 207 192
15.176023 1.468488 -20.982841 205 204 189
14.932098 1.442612 -20.613100 199 202 187
14.760520 1.423795 -20.344233 196 197 185
14.489715 1.395481 -19.939659 203 198 190
14.209679 1.366368 -19.523672 200 190 184
14.212165 1.364470 -19.496555 198 189 183
43.721714 3.837572 -54.834064 218 209 200
39.141525 3.411175 -48.741390 212 202 193
38.926754 3.387650 -48.405243 215 189 197
13.465744 1.077213 -15.392018 168 122 99
13.053885 1.042907 -14.901827 163 121 97
12.825790 1.023353 -14.622417 156 119 95
12.802449 1.020164 -14.576864 151 119 97
12.766038 1.015945 -14.516567 145 117 97
12.729927 1.011760 -14.456767 134 110 93
7.606616 0.562346 -8.035215 91 81 82
7.607066 0.561703 -8.026027 94 83 84
7.616214 0.561703 -8.026027 99 85 87
7.625362 0.561703 -8.026027 100 83 86
26.521364 1.864172 -26.636662 109 96 86
26.501436 1.860641 -26.586212 112 98 85
26.582085 1.864172 -26.636662 115 99 85
26.612446 1.864172 -26.636662 115 98 83
26.592346 1.860641 -26.586212 118 99 84
26.622650 1.860641 -26.586212 122 101 87
26.907761 1.878429 -26.840384 122 101 88
26.989960 1.882028 -26.891802 122 100 89
26.968946 1.878429 -26.840384 122 98 89
19.003658 1.302942 -18.617401 141 115 100
19.024879 1.302942 -18.617401 142 117 102
11.925396 0.803286 -11.477940 150 121 110
11.938478 0.803286 -11.477940 144 119 111
11.912599 0.800667 -11.440522 138 118 111
9.111307 0.611718 -8.740673 135 113 104
9.064826 0.607932 -8.686584 139 106 93
9.057912 0.606806 -8.670488 150 105 81
9.067794 0.606806 -8.670488 169 110 72
9.077677 0.606806 -8.670488 198 125 77
9.076347 0.606057 -8.659791 219 135 84
9.080616 0.605683 -8.654451 231 139 91
9.090480 0.605683 -8.654451 231 142 93
9.111580 0.606431 -8.665136 229 141 93
9.121456 0.606431 -8.665136 235 143 96
9.125699 0.606057 -8.659791 241 146 100
9.129937 0.605683 -8.654451 242 145 97
9.139802 0.605683 -8.654451 241 144 94
9.149667 0.605683 -8.654451 241 142 90
8.614048 0.566562 -8.095456 238 153 105
8.633232 0.567216 -8.104804 237 149 103
8.637484 0.566889 -8.100127 232 146 100
8.651709 0.567216 -8.104804 230 147 101
8.660946 0.567216 -8.104804 231 145 102
8.670184 0.567216 -8.104804 229 141 100
8.694482 0.568200 -8.118867 224 136 94
8.708773 0.568529 -8.123565 212 128 88
43.831223 2.798913 -39.992935 255 174 120
43.504967 2.775193 -39.654015 255 177 121
43.184196 2.751873 -39.320786 255 182 123
43.472561 2.767376 -39.542313 253 181 119
60.346714 3.837572 -54.834064 250 176 113
60.409214 3.837572 -54.834064 252 177 113
60.471714 3.837572 -54.834064 253 175 113
60.534214 3.837572 -54.834064 252 169 109
60.596714 3.837572 -54.834064 252 171 110
60.659214 3.837572 -54.834064 254 174 112
60.721714 3.837572 -54.834064 255 175 112
44.670704 2.783055 -39.766346 255 182 128
43.127758 2.684203 -38.353882 255 183 128
42.936844 2.669615 -38.145435 255 183 129
62.096714 3.837572 -54.834064 255 174 118
62.159214 3.837572 -54.834064 255 180 127
62.221714 3.837572 -54.834064 255 187 137
62.284214 3.837572 -54.834064 254 193 147
62.346714 3.837572 -54.834064 250 195 154
62.409214 3.837572 -54.834064 243 195 158
62.471714 3.837572 -54.834064 235 192 160
59.734173 3.665740 -52.378807 230 191 163
59.350960 3.638587 -51.990818 223 192 168
59.410217 3.638587 -51.990818 221 193 172
62.721714 3.837572 -54.834064 224 196 175
62.784214 3.837572 -54.834064 224 197 177
62.846714 3.837572 -54.834064 223 196 179
62.909214 3.837572 -54.834064 219 195 181
12.932684 0.758039 -10.831420 148 135 120
12.787164 0.748795 -10.699329 143 125 113
12.731432 0.744821 -10.642548 139 120 113
12.647674 0.739216 -10.562469 136 117 113
12.612263 0.736446 -10.522879 129 110 104
12.558358 0.732601 -10.467950 123 104 98
9.632434 0.561382 -8.021441 123 105 100
9.641577 0.561382 -8.021441 127 110 107
9.661761 0.562024 -8.030618 131 115 115
9.670915 0.562024 -8.030618 136 121 124
9.680068 0.562024 -8.030618 137 126 127
12.416979 0.720248 -10.291437 134 123 122
12.437827 0.720777 -10.298988 139 127 123
36.482197 2.000852 -28.589655 122 118 130
36.146690 1.980682 -28.301453 119 114 127
36.178947 1.980682 -28.301453 114 109 117
36.065781 1.972728 -28.187792 111 106 110
36.390202 1.988701 -28.416033 113 111 113
37.241238 2.029790 -29.003141 103 108 104
36.519756 1.988701 -28.416033 92 98 91
36.478302 1.984684 -28.358627 83 89 83
36.733250 1.996786 -28.531546 80 86 83
36.765770 1.996786 -28.531546 75 80 79
36.798290 1.996786 -28.531546 74 78 77
36.830811 1.996786 -28.531546 74 78 77
26.996670 1.459760 -20.858128 81 83 83
26.469809 1.430012 -20.433071 82 83 84
26.339737 1.421734 -20.314791 86 86 88
26.362892 1.421734 -20.314791 91 90 94
30.703609 1.642840 -23.474115 94 97 86
30.730366 1.642840 -23.474115 91 96 84
37.715813 1.976697 -28.244509 84 83 84
37.672207 1.972728 -28.187792 85 85 87
37.704334 1.972728 -28.187792 81 82 84
37.736462 1.972728 -28.187792 79 82 81
37.997494 1.984684 -28.358627 80 84 81
23.015718 2.247485 -32.645397 209 170 180
23.269386 2.268588 -32.951927 200 163 166
23.090137 2.247485 -32.645397 211 177 171
22.398106 2.176618 -31.616037 213 183 173
21.606852 2.096352 -30.450153 212 189 179
21.227146 2.056210 -29.867065 216 198 191
20.688942 2.000866 -29.063189 208 195 190
19.977562 1.928979 -28.019003 203 196 187
19.315527 1.862078 -27.047245 205 199 190
18.559628 1.786356 -25.947357 205 196 194
17.831133 1.713508 -24.889221 207 198 202
17.426918 1.672004 -24.286367 207 202 204
17.157753 1.643569 -23.873335 204 201 197
17.184963 1.643569 -23.873335 208 202 191
16.673409 1.592123 -23.126064 212 202 186
15.571058 1.484514 -21.563011 211 206 191
15.176023 1.444572 -20.982841 207 207 195
14.932098 1.419117 -20.613100 204 204 194
14.760520 1.400607 -20.344233 204 200 194
14.407851 1.364998 -19.827007 208 199 197
14.189942 1.342248 -19.496555 211 199 198
14.075321 1.329324 -19.308832 204 196 193
14.097330 1.329324 -19.308832 201 199 193
38.871582 3.332477 -48.405243 202 194 183
37.881741 3.243015 -47.105774 201 174 179
37.808559 3.232169 -46.948231 205 167 175
13.791160 1.089536 -15.825841 159 122 99
13.762650 1.085863 -15.772495 163 122 101
13.465744 1.059669 -15.392018 164 120 97
13.250817 1.041399 -15.126638 158 119 94
13.001857 1.020505 -14.823148 153 118 94
12.842457 1.006686 -14.622417 148 117 96
12.859124 1.006686 -14.622417 143 117 98
7.583958 0.552871 -8.030618 100 85 83
7.567137 0.550980 -8.003147 94 82 81
7.576259 0.550980 -8.003147 91 82 81
7.585382 0.550980 -8.003147 95 83 85
7.607515 0.551924 -8.016859 102 86 89
26.642670 1.844310 -26.789162 109 95 86
26.471134 1.830338 -26.586212 111 97 87
26.501436 1.830338 -26.586212 115 101 89
26.531740 1.830338 -26.586212 118 103 89
26.562042 1.830338 -26.586212 116 101 85
26.491997 1.823431 -26.485888 118 101 85
26.522186 1.823431 -26.485888 120 101 86
26.907761 1.847836 -26.840384 122 101 87
26.968946 1.847836 -26.840384 123 98 87
18.023596 1.215621 -17.657259 144 118 104
17.930948 1.208023 -17.546900 143 117 103
11.944929 0.791498 -11.496740 149 122 109
11.899559 0.787627 -11.440522 143 119 111
11.873890 0.785068 -11.403347 137 118 110
9.054925 0.598031 -8.686584 136 114 105
8.992485 0.593259 -8.617263 141 107 93
9.002308 0.593259 -8.617263 156 107 81
9.012130 0.593259 -8.617263 180 117 77
9.021952 0.593259 -8.617263 207 130 80
9.026233 0.592895 -8.611976 226 139 86
9.036048 0.592895 -8.611976 233 140 89
9.062544 0.593988 -8.627855 232 141 92
9.083544 0.594719 -8.638474 231 142 92
9.093390 0.594719 -8.638474 235 142 95
9.092046 0.593988 -8.627855 239 142 95
9.101880 0.593988 -8.627855 240 141 94
9.117318 0.594353 -8.633162 242 141 92
8.609786 0.557656 -8.100127 237 154 104
8.594223 0.556052 -8.076824 238 153 104
9.084301 0.587132 -8.528263 239 151 104
9.088500 0.586775 -8.523085 236 150 103
9.098214 0.586775 -8.523085 232 149 102
8.655949 0.557656 -8.100127 233 149 103
43.260559 2.714658 -39.431236 255 179 126
42.943619 2.691973 -39.101727 255 182 127
43.350445 2.714658 -39.431236 255 184 126
60.346714 3.775072 -54.834064 255 183 123
60.409214 3.775072 -54.834064 255 183 123
60.471714 3.775072 -54.834064 255 182 123
60.534214 3.775072 -54.834064 255 180 122
60.596714 3.775072 -54.834064 255 178 120
60.659214 3.775072 -54.834064 255 178 118
60.721714 3.775072 -54.834064 255 179 117
60.784214 3.775072 -54.834064 255 180 118
44.625378 2.737729 -39.766346 255 182 127
43.560108 2.669664 -38.777679 255 183 128
42.546520 2.604902 -37.836983 255 186 129
42.936844 2.626137 -38.145435 255 185 130
62.034214 3.775072 -54.834064 255 173 116
62.096714 3.775072 -54.834064 255 176 117
62.159214 3.775072 -54.834064 255 180 122
62.221714 3.775072 -54.834064 255 182 127
62.284214 3.775072 -54.834064 255 184 131
62.346714 3.775072 -54.834064 251 184 135
62.409214 3.775072 -54.834064 244 184 138
62.471714 3.775072 -54.834064 238 182 141
59.734173 3.606039 -52.378807 232 182 143
59.350960 3.579328 -51.990818 224 185 149
59.410217 3.579328 -51.990818 222 188 155
63.221714 3.775072 -54.834064 196 191 180
47.649292 2.842407 -41.286823 197 192 181
47.696350 2.842407 -41.286823 200 192 179
12.902817 0.743971 -10.806405 153 137 115
12.787164 0.736599 -10.699329 153 131 111
12.750766 0.733803 -10.658710 152 125 111
12.685856 0.729372 -10.594355 149 121 110
12.659713 0.727177 -10.562469 140 116 104
12.624257 0.724452 -10.522879 132 112 101
9.643455 0.552871 -8.030618 125 109 99
9.641577 0.552239 -8.021441 120 109 101
9.661761 0.552871 -8.030618 118 110 105
9.659863 0.552239 -8.021441 124 117 114
9.663483 0.551924 -8.016859 134 127 128
9.661585 0.551294 -8.007712 144 136 137
37.318249 2.013372 -29.244835 107 105 117
36.514782 1.968266 -28.589655 99 97 108
36.178947 1.948424 -28.301453 98 94 100
36.065781 1.940599 -28.187792 97 94 96
36.097908 1.940599 -28.187792 95 93 94
37.518246 2.013372 -29.244835 87 89 85
37.551582 2.013372 -29.244835 86 90 85
37.274296 1.996732 -29.003141 79 86 79
37.307354 1.996732 -29.003141 72 80 72
37.495350 2.005018 -29.123487 70 77 72
37.606567 2.009186 -29.184034 74 79 77
36.948486 1.972283 -28.648001 76 80 79
36.981140 1.972283 -28.648001 75 78 77
37.241806 1.984432 -28.824478 74 76 75
37.583351 2.000866 -29.063189 79 80 80
26.996670 1.435986 -20.858128 84 83 83
26.547092 1.410830 -20.492731 80 79 80
26.225878 1.392534 -20.226974 78 79 79
26.248932 1.392534 -20.226974 79 82 82
37.640079 1.940599 -28.187792 86 84 86
37.596710 1.936710 -28.131304 84 83 85
37.704334 1.940599 -28.187792 79 80 81
37.812393 1.944504 -28.244509 79 84 81
23.069368 2.215428 -32.721493 185 168 168
23.545746 2.257526 -33.343281 179 159 153
21.560083 2.057183 -30.384243 205 178 169
21.227146 2.022167 -29.867065 216 193 187
18.628494 1.763300 -26.043638 211 198 199
17.551062 1.658671 -24.498291 209 200 206
17.487429 1.650032 -24.370695 201 197 201
17.484850 1.647172 -24.328459 200 198 196
16.673409 1.565763 -23.126064 211 201 188
15.571058 1.459936 -21.563011 210 203 192
14.974570 1.401797 -20.704308 209 206 198
14.932098 1.395622 -20.613100 210 205 200
14.654329 1.367509 -20.197872 209 199 198
14.347059 1.336735 -19.743347 212 196 198
14.150636 1.316369 -19.442549 211 196 196
13.979178 1.298386 -19.176941 202 195 190
14.001037 1.298386 -19.176941 198 200 190
38.926754 3.277305 -48.405243 188 168 169
37.808559 3.178657 -46.948231 195 161 167
36.243679 3.017201 -44.563557 208 201 190
36.294472 3.017201 -44.563557 214 203 193
13.726695 1.067886 -15.772495 163 124 101
13.683175 1.063108 -15.701924 159 123 102
13.549512 1.051348 -15.528231 160 121 102
13.567211 1.051348 -15.528231 160 119 99
13.465744 1.042125 -15.392018 158 117 94
12.977641 1.000440 -14.776338 145 116 94
7.558015 0.541858 -8.003147 98 84 81
7.554217 0.540933 -7.989482 92 81 77
7.559021 0.540625 -7.984938 91 82 79
7.555229 0.539704 -7.971335 96 84 83
7.564315 0.539704 -7.971335 102 85 87
26.744749 1.820725 -26.891802 111 97 88
26.571785 1.806879 -26.687302 113 98 90
26.501436 1.800035 -26.586212 116 100 91
26.582085 1.803451 -26.636662 116 101 89
26.612446 1.803451 -26.636662 116 102 87
26.642805 1.803451 -26.636662 118 102 87
18.003469 1.195495 -17.657259 145 120 106
17.910948 1.188023 -17.546900 147 121 108
17.930948 1.188023 -17.546900 146 120 106
17.950949 1.188023 -17.546900 141 116 98
11.909265 0.775219 -11.449854 141 119 108
11.873890 0.772070 -11.403347 135 116 106
8.982663 0.583437 -8.617263 137 113 101
8.959485 0.581296 -8.585639 147 110 92
8.969272 0.581296 -8.585639 167 114 85
8.990054 0.582008 -8.596154 193 125 81
8.999852 0.582008 -8.596154 214 134 80
9.020699 0.582721 -8.606695 228 140 85
9.030508 0.582721 -8.606695 235 142 89
9.045864 0.583079 -8.611976 235 142 91
9.066805 0.583795 -8.622556 233 141 91
9.082211 0.584154 -8.627855 236 140 93
9.064191 0.582364 -8.601422 239 140 95
9.062888 0.581651 -8.590894 243 141 97
9.094944 0.583079 -8.611976 244 142 96
8.580080 0.546532 -8.072180 237 154 104
8.589280 0.546532 -8.072180 238 152 103
9.073276 0.576710 -8.517913 238 150 101
9.088500 0.577060 -8.523085 235 150 101
9.092693 0.576710 -8.517913 232 152 102
9.096882 0.576361 -8.512748 232 152 104
9.106586 0.576361 -8.512748 232 148 101
9.116288 0.576361 -8.512748 231 144 97
45.343407 2.795348 -41.286823 255 181 127
44.993465 2.770899 -40.925716 255 182 127
45.437527 2.795348 -41.286823 255 183 126
60.409214 3.712572 -54.834064 255 183 126
60.471714 3.712572 -54.834064 255 183 126
60.534214 3.712572 -54.834064 255 184 127
60.596714 3.712572 -54.834064 255 185 128
60.659214 3.712572 -54.834064 255 184 126
60.721714 3.712572 -54.834064 255 184 124
60.784214 3.712572 -54.834064 255 186 125
43.680771 2.632738 -38.885098 255 183 126
42.092690 2.534449 -37.433388 255 185 127
42.135357 2.534449 -37.433388 255 185 129
58.326321 3.494185 -51.608532 255 178 124
62.034214 3.712572 -54.834064 255 181 124
62.096714 3.712572 -54.834064 255 181 121
62.159214 3.712572 -54.834064 255 181 121
62.221714 3.712572 -54.834064 255 182 124
62.284214 3.712572 -54.834064 255 180 124
62.346714 3.712572 -54.834064 253 176 123
62.409214 3.712572 -54.834064 249 175 125
62.471714 3.712572 -54.834064 246 175 128
62.534214 3.712572 -54.834064 242 175 129
63.159214 3.712572 -54.834064 196 187 171
48.602879 2.854110 -42.154716 194 186 174
47.649292 2.795348 -41.286823 195 186 177
47.696350 2.795348 -41.286823 199 187 178
48.168423 2.820233 -41.654362 205 186 174
12.826268 0.726620 -10.732049 170 145 122
12.770159 0.722752 -10.674920 175 146 127
12.762915 0.721654 -10.658710 172 144 126
12.697931 0.717297 -10.594355 163 139 122
12.671752 0.715138 -10.562469 150 132 116
12.617334 0.711391 -10.507126 135 123 109
9.652608 0.543718 -8.030618 123 115 103
9.650720 0.543096 -8.021441 117 112 102
9.643331 0.542167 -8.007712 119 114 107
9.652458 0.542167 -8.007712 135 131 130
9.650575 0.541549 -7.998587 161 157 158
9.681758 0.542786 -8.016859 170 169 166
39.771591 2.102696 -31.056461 89 88 86
39.806988 2.102696 -31.056461 90 89 87
38.645405 2.039525 -30.123434 87 87 84
38.679741 2.039525 -30.123434 82 86 82
37.584915 1.980038 -29.244835 77 83 78
37.462154 1.971823 -29.123487 74 83 77
37.495350 1.971823 -29.123487 74 81 77
37.606567 1.975922 -29.184034 79 84 82
37.483974 1.967740 -29.063189 80 84 83
37.517097 1.967740 -29.063189 76 78 79
37.550224 1.967740 -29.063189 74 75 76
37.818249 1.980038 -29.244835 79 79 80
37.307514 1.951578 -28.824478 83 82 82
26.240633 1.371455 -20.256163 77 76 75
25.853350 1.350026 -19.939659 74 76 74
25.912886 1.351947 -19.968023 74 78 75
37.651424 1.912311 -28.244509 90 82 88
19.839787 1.006799 -14.870255 89 81 87
37.414688 1.897043 -28.019003 88 83 89
37.596710 1.904646 -28.131304 84 83 87
37.856369 1.916166 -28.301453 79 81 82
23.123268 2.183221 -32.797947 181 184 176
23.601807 2.224806 -33.422668 178 170 160
19.334805 1.810889 -27.204496 209 177 173
17.520485 1.627907 -24.455610 204 198 203
17.548361 1.627907 -24.455610 192 192 196
15.150837 1.398830 -21.014252 207 202 193
15.174788 1.398830 -21.014252 212 204 194
14.974570 1.378198 -20.704308 214 204 196
14.803429 1.358166 -20.403374 215 195 195
14.677351 1.344487 -20.197872 212 187 189
14.189942 1.297803 -19.496555 208 187 184
14.172796 1.294208 -19.442549 210 200 189
43.721714 3.650072 -54.834064 220 205 194
43.784214 3.650072 -54.834064 213 207 193
43.846714 3.650072 -54.834064 211 211 192
43.909214 3.650072 -54.834064 208 211 188
43.971714 3.650072 -54.834064 204 206 185
44.034214 3.650072 -54.834064 198 198 184
44.096714 3.650072 -54.834064 185 183 181
44.159214 3.650072 -54.834064 176 160 165
37.188141 3.043708 -45.724823 209 199 197
37.240257 3.043708 -45.724823 215 204 202
37.660389 3.073745 -46.176056 219 206 201
13.662663 1.046381 -15.719508 172 126 102
13.680581 1.046381 -15.719508 164 126 104
13.683175 1.045211 -15.701924 161 126 105
13.624870 1.039398 -15.614594 157 121 102
12.960798 0.983598 -14.776338 154 121 96
12.882715 0.976404 -14.668256 144 116 94
12.899434 0.976404 -14.668256 133 111 93
7.574805 0.534564 -8.030618 101 87 83
7.553709 0.532432 -7.998587 100 87 81
7.545628 0.531221 -7.980398 91 81 74
7.533310 0.529716 -7.957778 90 81 75
7.491418 0.526137 -7.904009 95 83 81
7.500427 0.526137 -7.904009 101 83 84
26.632622 1.776461 -26.687302 114 98 88
26.663040 1.776461 -26.687302 116 102 89
17.890949 1.168023 -17.546900 146 122 108
17.910948 1.168023 -17.546900 148 123 110
17.930948 1.168023 -17.546900 147 121 108
17.950949 1.168023 -17.546900 145 119 103
11.873890 0.759073 -11.403347 134 115 101
8.944229 0.571160 -8.580392 138 112 96
8.905021 0.568036 -8.533447 150 111 89
8.920170 0.568381 -8.538638 173 117 84
8.929902 0.568381 -8.538638 198 127 80
8.939634 0.568381 -8.538638 218 136 80
9.009650 0.572210 -8.596154 231 142 85
9.030508 0.572911 -8.606695 236 144 90
9.045864 0.573263 -8.611976 237 143 91
9.055680 0.573263 -8.611976 237 141 91
9.054386 0.572560 -8.601422 239 140 93
9.008988 0.569073 -8.549038 243 142 97
9.018732 0.569073 -8.549038 246 143 101
8.575810 0.537640 -8.076824 239 153 104
8.560390 0.536098 -8.053655 238 155 105
8.569569 0.536098 -8.053655 237 151 101
9.073276 0.567001 -8.517913 236 149 99
9.082985 0.567001 -8.517913 234 151 99
9.092693 0.567001 -8.517913 230 154 101
9.102402 0.567001 -8.517913 227 153 102
9.106586 0.566658 -8.512748 228 150 99
45.390469 2.748290 -41.286823 255 182 128
45.437527 2.748290 -41.286823 255 184 129
60.409214 3.650072 -54.834064 255 183 128
60.471714 3.650072 -54.834064 255 183 128
60.534214 3.650072 -54.834064 255 185 130
60.596714 3.650072 -54.834064 255 187 132
60.659214 3.650072 -54.834064 255 187 130
60.721714 3.650072 -54.834064 255 187 128
58.499092 3.512851 -52.772633 255 188 127
58.559242 3.512851 -52.772633 255 189 128
49.532158 2.929211 -44.004768 255 189 131
49.582317 2.929211 -44.004768 255 184 131
49.632473 2.929211 -44.004768 255 180 130
52.306133 3.083889 -46.328449 255 178 127
52.706841 3.104380 -46.636280 255 178 125
62.034214 3.650072 -54.834064 255 182 126
62.096714 3.650072 -54.834064 255 185 126
62.159214 3.650072 -54.834064 255 184 125
62.221714 3.650072 -54.834064 255 185 129
62.284214 3.650072 -54.834064 255 183 129
62.346714 3.650072 -54.834064 255 178 125
62.409214 3.650072 -54.834064 255 176 126
62.471714 3.650072 -54.834064 254 175 126
62.534214 3.650072 -54.834064 252 174 125
49.750027 2.875134 -43.192371 200 184 164
48.602879 2.806062 -42.154716 196 181 168
48.216545 2.781007 -41.778336 196 180 174
47.837048 2.756397 -41.408615 198 179 177
48.311783 2.781007 -41.778336 203 177 175
48.648979 2.797660 -42.028503 209 175 169
48.551517 2.789309 -41.903046 211 173 164
48.599281 2.789309 -41.903046 204 171 166
48.647041 2.789309 -41.903046 194 168 168
48.694801 2.789309 -41.903046 195 174 175
48.742565 2.789309 -41.903046 195 174 180
48.790325 2.789309 -41.903046 194 172 179
48.692734 2.781007 -41.778336 191 167 173
50.235455 2.866314 -43.059879 180 161 163
9.645207 0.533648 -8.016859 123 112 102
9.621377 0.531826 -7.989482 120 107 99
9.619534 0.531221 -7.980398 128 120 116
9.628630 0.531221 -7.980398 151 149 145
9.654191 0.532129 -7.994032 159 161 152
62.636791 3.255813 -48.911221 89 88 85
47.225090 2.452542 -36.843887 89 88 86
39.842388 2.067297 -31.056461 84 84 83
38.303097 1.983903 -29.803654 79 85 84
37.462154 1.938627 -29.123487 78 86 84
37.340412 1.930617 -29.003141 79 85 81
37.528545 1.938627 -29.123487 82 84 82
37.639832 1.942658 -29.184034 80 82 82
44.964661 2.318656 -34.832558 78 79 81
45.004364 2.318656 -34.832558 78 78 81
49.733585 2.560050 -38.458961 82 82 84
49.777420 2.560050 -38.458961 84 83 83
25.853350 1.327299 -19.939659 74 76 71
19.839787 0.989850 -14.870255 94 83 94
37.414688 1.865107 -28.019003 93 85 95
37.521519 1.868837 -28.075041 90 87 94
23.507740 2.181516 -33.343281 180 192 178
23.714733 2.197173 -33.582584 179 180 166
19.334805 1.779881 -27.204496 202 167 164
17.523140 1.602825 -24.498291 200 190 189
17.520485 1.600032 -24.455610 194 189 191
17.548361 1.600032 -24.455610 180 182 183
15.427986 1.400028 -21.398659 199 198 193
43.659214 3.587572 -54.834064 228 205 192
43.721714 3.587572 -54.834064 220 204 192
43.784214 3.587572 -54.834064 214 207 192
43.846714 3.587572 -54.834064 212 211 191
43.909214 3.587572 -54.834064 210 211 189
43.971714 3.587572 -54.834064 210 210 189
44.034214 3.587572 -54.834064 209 210 194
44.096714 3.587572 -54.834064 190 202 195
44.159214 3.587572 -54.834064 178 181 183
37.431995 3.011208 -46.024658 211 196 202
37.361958 3.001368 -45.874249 215 201 206
37.660389 3.021113 -46.176056 218 203 204
12.990148 0.979124 -14.965374 177 126 97
12.965737 0.976003 -14.917663 169 121 97
13.484282 1.013707 -15.493952 162 122 100
13.531813 1.015950 -15.528231 158 122 102
13.549512 1.015950 -15.528231 155 117 99
12.971265 0.968796 -14.807511 159 120 95
12.974456 0.967775 -14.791908 151 117 93
12.909695 0.961695 -14.698975 141 113 93
7.579141 0.525712 -8.035215 100 86 80
7.575291 0.524811 -8.021441 101 88 80
7.541340 0.521829 -7.975864 93 84 74
7.482409 0.517128 -7.904009 91 82 74
7.491418 0.517128 -7.904009 95 82 78
7.500427 0.517128 -7.904009 100 83 81
17.890949 1.148023 -17.546900 143 120 106
17.910948 1.148023 -17.546900 146 121 107
17.930948 1.148023 -17.546900 146 120 107
17.950949 1.148023 -17.546900 145 119 104
18.015989 1.150900 -17.590878 143 117 101
8.868339 0.556617 -8.507588 141 112 91
8.878036 0.556617 -8.507588 161 115 90
8.887733 0.556617 -8.507588 185 123 88
8.897429 0.556617 -8.507588 205 131 83
8.874854 0.554601 -8.476764 222 139 83
8.943926 0.558309 -8.533447 231 143 87
9.036048 0.563447 -8.611976 235 144 91
9.073698 0.565181 -8.638474 236 143 93
9.066805 0.564139 -8.622556 239 142 94
9.065496 0.563447 -8.611976 242 142 97
9.025478 0.560353 -8.564686 245 142 100
9.018732 0.559329 -8.549038 247 143 103
8.561679 0.528130 -8.072180 239 148 101
8.556119 0.527221 -8.058278 241 154 105
8.555481 0.526616 -8.049037 240 155 104
8.564655 0.526616 -8.049037 238 151 100
8.578749 0.526918 -8.053655 236 151 99
9.082985 0.557293 -8.517913 233 153 99
9.092693 0.557293 -8.517913 229 154 99
9.096882 0.556955 -8.512748 224 153 99
9.084549 0.555607 -8.492147 226 151 98
9.083238 0.554936 -8.481886 231 150 98
9.043725 0.551934 -8.436010 225 142 95
9.053341 0.551934 -8.436010 211 129 90
53.946335 3.233868 -49.427891 255 173 114
53.068371 3.177918 -48.572735 255 170 111
52.758621 3.156077 -48.238903 255 170 113
52.453102 3.134534 -47.909626 255 170 115
60.346714 3.587572 -54.834064 255 184 130
60.409214 3.587572 -54.834064 255 184 130
60.471714 3.587572 -54.834064 255 185 131
60.534214 3.587572 -54.834064 255 185 131
60.596714 3.587572 -54.834064 255 186 131
60.659214 3.587572 -54.834064 255 187 132
60.721714 3.587572 -54.834064 255 188 131
58.499092 3.452701 -52.772633 255 189 130
58.559242 3.452701 -52.772633 255 189 130
49.582317 2.879055 -44.004768 255 191 135
49.632473 2.879055 -44.004768 255 186 135
52.306133 3.031084 -46.328449 255 182 132
62.034214 3.587572 -54.834064 255 184 128
62.096714 3.587572 -54.834064 255 185 129
62.159214 3.587572 -54.834064 255 183 128
62.221714 3.587572 -54.834064 255 182 128
62.284214 3.587572 -54.834064 255 183 130
62.346714 3.587572 -54.834064 255 181 130
62.409214 3.587572 -54.834064 255 179 129
62.471714 3.587572 -54.834064 255 178 129
62.534214 3.587572 -54.834064 255 179 129
60.243454 3.452701 -52.772633 254 182 125
56.882122 3.256803 -49.778442 252 182 122
50.794838 2.888108 -44.143147 219 183 154
49.750027 2.825903 -43.192371 212 184 158
49.799259 2.825903 -43.192371 206 179 161
48.505264 2.749756 -42.028503 204 177 167
48.553169 2.749756 -42.028503 204 174 171
48.601074 2.749756 -42.028503 205 168 166
48.648979 2.749756 -42.028503 209 164 160
48.551517 2.741548 -41.903046 210 161 155
48.599281 2.741548 -41.903046 197 156 147
48.647041 2.741548 -41.903046 187 156 146
48.694801 2.741548 -41.903046 194 170 163
48.742565 2.741548 -41.903046 198 177 173
48.645115 2.733388 -41.778336 199 178 177
48.404613 2.717214 -41.531124 194 175 173
48.740353 2.733388 -41.778336 182 168 163
11.599422 0.630782 -9.641154 133 114 106
9.610437 0.522125 -7.980398 132 111 104
9.592267 0.520645 -7.957778 128 116 109
9.601337 0.520645 -7.957778 144 141 131
9.610408 0.520645 -7.957778 153 154 140
65.550217 3.351892 -51.231827 84 83 80
63.522118 3.245295 -49.602547 87 84 82
62.692539 3.200064 -48.911221 87 84 84
66.452988 3.388998 -51.798969 84 83 84
70.409210 3.587572 -54.834064 81 82 84
70.471710 3.587572 -54.834064 77 84 85
70.534210 3.587572 -54.834064 73 82 83
37.340412 1.897559 -29.003141 76 82 79
37.528545 1.905432 -29.123487 78 80 78
62.812313 3.177918 -48.572735 81 82 84
62.650894 3.166960 -48.405243 83 84 84
62.490582 3.156077 -48.238903 79 80 76
62.761238 3.166960 -48.405243 77 79 74
63.033768 3.177918 -48.572735 78 80 75
37.564648 1.840518 -28.131304 91 82 95
37.672207 1.844214 -28.187792 93 90 97
23.619949 2.153743 -33.502434 185 193 172
23.828747 2.169275 -33.744041 182 185 166
23.982677 2.158896 -33.582584 201 189 183
17.523140 1.574901 -24.498291 207 186 186
17.459650 1.566699 -24.370695 204 181 182
17.487429 1.566699 -24.370695 192 177 174
43.596714 3.525072 -54.834064 219 207 189
43.659214 3.525072 -54.834064 219 209 190
43.721714 3.525072 -54.834064 215 209 189
43.784214 3.525072 -54.834064 213 211 188
43.846714 3.525072 -54.834064 213 212 186
43.909214 3.525072 -54.834064 214 210 184
43.971714 3.525072 -54.834064 219 210 188
44.034214 3.525072 -54.834064 221 210 192
44.096714 3.525072 -54.834064 207 203 193
44.159214 3.525072 -54.834064 199 197 193
44.221714 3.525072 -54.834064 199 192 189
39.043694 3.090474 -48.073700 215 196 199
37.431995 2.958749 -46.024658 219 193 205
37.361958 2.949080 -45.874249 224 195 208
37.536915 2.958749 -46.024658 224 198 204
37.837486 2.978279 -46.328449 224 202 200
12.990148 0.962067 -14.965374 176 123 94
12.965737 0.958999 -14.917663 166 118 90
14.578471 1.076872 -16.751217 163 119 94
12.978580 0.954940 -14.854519 166 114 99
12.995512 0.954940 -14.854519 169 117 101
12.971265 0.951918 -14.807511 164 116 98
12.988142 0.951918 -14.807511 153 114 94
13.271000 0.971387 -15.110355 140 111 94
7.569982 0.516553 -8.035215 94 80 73
7.574805 0.516258 -8.030618 96 83 75
7.482409 0.508119 -7.904009 92 83 73
7.491418 0.508119 -7.904009 95 82 75
7.500427 0.508119 -7.904009 98 83 77
7.509436 0.508119 -7.904009 102 85 80
17.910948 1.128023 -17.546900 144 121 104
17.930948 1.128023 -17.546900 144 121 105
17.950949 1.128023 -17.546900 140 119 103
18.015989 1.130850 -17.590878 140 117 101
8.847917 0.546258 -8.497289 142 109 85
8.820229 0.543953 -8.461435 156 109 80
8.851213 0.545268 -8.481886 180 118 87
8.860882 0.545268 -8.481886 204 128 92
8.843831 0.543626 -8.456338 217 134 92
8.826882 0.541993 -8.430943 226 139 94
8.852442 0.542971 -8.446161 231 143 98
9.080616 0.556362 -8.654451 232 143 101
8.572195 0.520126 -8.090790 235 149 102
8.556758 0.518631 -8.067540 239 153 103
8.551209 0.517739 -8.053655 243 155 105
8.555481 0.517442 -8.049037 240 155 101
8.564655 0.517442 -8.049037 236 154 98
8.573830 0.517442 -8.049037 234 153 97
9.082985 0.547584 -8.517913 233 153 96
9.092693 0.547584 -8.517913 231 152 96
9.074869 0.545928 -8.492147 229 151 95
8.498448 0.510707 -7.944267 229 151 95
8.517144 0.511285 -7.953269 228 150 97
8.521381 0.510996 -7.948766 220 144 95
8.530441 0.510996 -7.948766 206 133 90
8.539501 0.510996 -7.948766 196 127 89
53.326687 3.144315 -48.911221 255 175 119
53.013004 3.122555 -48.572735 255 175 118
51.989014 3.059046 -47.584816 255 174 116
51.347019 3.018122 -46.948231 255 173 115
51.058998 2.998068 -46.636280 255 172 115
51.454044 3.018122 -46.948231 255 173 118
60.409214 3.525072 -54.834064 255 186 130
60.471714 3.525072 -54.834064 255 185 130
60.534214 3.525072 -54.834064 255 184 130
60.596714 3.525072 -54.834064 255 184 131
60.659214 3.525072 -54.834064 255 185 132
60.721714 3.525072 -54.834064 255 186 133
60.784214 3.525072 -54.834064 255 186 131
62.034214 3.525072 -54.834064 255 188 128
62.096714 3.525072 -54.834064 255 186 130
62.159214 3.525072 -54.834064 255 183 130
62.221714 3.525072 -54.834064 255 181 127
62.284214 3.525072 -54.834064 255 180 126
62.346714 3.525072 -54.834064 255 178 124
62.409214 3.525072 -54.834064 255 177 122
62.471714 3.525072 -54.834064 255 180 124
62.534214 3.525072 -54.834064 255 183 127
57.231281 3.222923 -50.134003 255 186 129
56.481544 3.177530 -49.427891 255 186 130
62.721714 3.525072 -54.834064 255 184 130
62.784214 3.525072 -54.834064 255 184 133
50.369965 2.811272 -43.730595 239 182 132
50.419807 2.811272 -43.730595 235 177 134
50.312916 2.802542 -43.594784 233 175 140
50.051723 2.785242 -43.325680 235 176 146
49.946949 2.776672 -43.192371 235 173 144
49.538898 2.751276 -42.797318 234 165 134
49.138245 2.726340 -42.409428 228 154 121
49.186581 2.726340 -42.409428 219 148 110
48.939217 2.709965 -42.154716 219 155 115
49.432602 2.734601 -42.537941 230 177 138
48.742565 2.693786 -41.903046 233 190 153
48.645115 2.685769 -41.778336 229 191 159
48.692734 2.685769 -41.778336 220 192 164
11.694971 0.626679 -9.748278 147 145 135
11.681746 0.625377 -9.728011 133 128 120
11.636385 0.622358 -9.681048 129 120 113
11.599422 0.619793 -9.641154 132 119 112
9.583197 0.511575 -7.957778 129 115 107
9.575981 0.510707 -7.944267 123 119 108
9.585036 0.510707 -7.944267 140 141 130
9.599524 0.510996 -7.948766 156 155 146
9.900093 0.526498 -8.189919 158 156 147
69.346710 3.525072 -54.834064 86 84 81
69.409210 3.525072 -54.834064 84 84 82
69.471710 3.525072 -54.834064 82 82 80
69.534210 3.525072 -54.834064 80 80 80
69.596710 3.525072 -54.834064 76 80 82
69.659210 3.525072 -54.834064 76 81 85
69.721710 3.525072 -54.834064 81 84 88
69.784210 3.525072 -54.834064 82 84 86
69.846710 3.525072 -54.834064 82 83 84
69.909210 3.525072 -54.834064 87 87 87
69.971710 3.525072 -54.834064 88 88 87
70.034210 3.525072 -54.834064 85 85 83
66.709137 3.354715 -52.184090 82 81 81
65.550217 3.293498 -51.231827 83 80 82
65.608612 3.293498 -51.231827 83 80 81
66.393944 3.329957 -51.798969 85 83 84
67.196861 3.367233 -52.378807 85 85 86
70.409210 3.525072 -54.834064 80 84 83
70.471710 3.525072 -54.834064 73 81 79
62.974857 3.133397 -48.741390 76 75 80
62.380615 3.101094 -48.238903 78 80 83
62.650894 3.111788 -48.405243 82 82 83
62.706066 3.111788 -48.405243 84 80 81
63.197079 3.133397 -48.741390 79 80 76
63.252636 3.133397 -48.741390 77 79 74
55.110718 2.718128 -42.281689 80 77 91
54.502258 2.685769 -41.778336 87 80 97
54.227097 2.669877 -41.531124 94 84 95
55.163948 2.701852 -42.028503 76 84 87
55.211853 2.701852 -42.028503 79 87 92
55.094803 2.693786 -41.903046 81 85 95
54.978447 2.685769 -41.778336 83 82 95
55.026070 2.685769 -41.778336 84 79 93
54.747807 2.669877 -41.531124 84 78 91
53.683357 2.615706 -40.688465 83 77 89
53.252155 2.563689 -39.879318 82 78 83
53.146626 2.556426 -39.766346 89 88 89
53.343063 2.563689 -39.879318 86 86 85
23.619949 2.115557 -33.502434 202 196 178
23.828747 2.130814 -33.744041 194 190 175
17.523140 1.546978 -24.498291 210 181 184
17.520485 1.544283 -24.455610 216 180 183
17.487429 1.538921 -24.370695 204 175 171
17.515205 1.538921 -24.370695 190 176 167
43.596714 3.462572 -54.834064 215 207 187
43.659214 3.462572 -54.834064 213 211 189
43.721714 3.462572 -54.834064 214 213 188
43.784214 3.462572 -54.834064 214 215 187
43.846714 3.462572 -54.834064 215 213 185
43.909214 3.462572 -54.834064 217 210 184
43.971714 3.462572 -54.834064 223 210 187
44.034214 3.462572 -54.834064 226 208 191
44.096714 3.462572 -54.834064 224 204 195
44.159214 3.462572 -54.834064 219 206 200
44.221714 3.462572 -54.834064 212 209 202
44.284214 3.462572 -54.834064 196 195 185
38.988899 3.035680 -48.073700 184 167 160
37.876274 2.944912 -46.636280 196 178 178
37.431995 2.906290 -46.024658 215 183 194
37.361958 2.896792 -45.874249 230 191 205
37.536915 2.906290 -46.024658 229 197 204
14.557657 1.059042 -16.771231 178 121 93
14.559378 1.057779 -16.751217 168 116 87
14.578471 1.057779 -16.751217 166 118 91
14.493790 1.050259 -16.632133 164 114 91
12.907017 0.934055 -14.791908 164 109 91
12.923877 0.934055 -14.791908 169 111 96
12.995512 0.938009 -14.854519 171 115 100
13.012444 0.938009 -14.854519 165 115 98
13.126609 0.945009 -14.965374 154 114 97
7.595606 0.509729 -8.072180 97 82 77
7.574318 0.507685 -8.039817 97 82 74
7.583482 0.507685 -8.039817 94 82 72
7.491418 0.499109 -7.904009 97 85 76
7.500427 0.499109 -7.904009 100 86 78
7.509436 0.499109 -7.904009 99 85 80
17.955837 1.110800 -17.590878 147 123 104
17.930948 1.108023 -17.546900 146 124 107
17.950949 1.108023 -17.546900 142 122 105
18.015989 1.110800 -17.590878 139 120 104
18.195650 1.120630 -17.746550 138 116 101
8.794681 0.533344 -8.446161 151 111 83
8.804307 0.533344 -8.446161 168 111 76
8.813934 0.533344 -8.446161 192 119 84
8.823562 0.533344 -8.446161 213 130 93
